ply
format ascii 1.0
element vertex 1219
property float x
property float y
property float z
property uint8 red
property uint8 green
property uint8 blue
end_header
-0.937906 12.278857 1.640434 107 135 48
-34.271770 39.872746 10.580009 155 168 163
-1.061660 12.275475 1.700187 48 70 13
-15.063591 60.343380 27.731747 89 99 102
-33.000652 32.980896 8.152003 13 20 14
-1.895926 12.871545 0.245319 85 110 76
-1.654802 12.498884 0.055429 67 86 44
-52.306396 47.977196 23.336666 59 94 136
-1.654344 12.499814 0.053066 67 86 44
-2.317864 13.349928 0.098739 25 28 17
-0.832691 12.554629 1.204839 5 9 0
-1.305276 11.959153 1.069498 72 110 43
-2.318533 13.349980 0.098345 25 28 17
-1.461086 12.155049 1.440567 102 135 66
-0.748419 12.381289 0.924667 69 103 66
-1.461086 12.155049 1.440567 102 135 66
-0.824181 12.670183 1.481584 68 89 37
-21.070639 17.836847 1.078406 50 62 58
3.190086 30.863289 5.534092 241 248 240
-32.559574 30.216854 6.472543 23 22 22
-1.485244 12.419620 0.630153 92 131 78
12.041652 67.599899 32.323364 155 143 122
-1.260542 12.360438 1.333249 116 152 107
13.331668 68.045029 32.543186 156 133 108
4.622686 30.763237 6.168927 20 4 23
-3.139514 14.352019 1.935787 120 134 87
-2.184567 13.035242 0.012426 2 5 1
5.272230 30.578512 4.379333 81 58 55
-2.151033 13.352215 0.175455 22 25 11
-1.408322 12.502942 0.306655 47 79 20
3.017215 28.813128 4.866444 116 115 107
-16.747105 18.203276 0.148675 38 41 36
4.932061 30.577991 6.227388 243 250 242
-26.109825 29.586060 6.293249 94 103 96
-2.049815 12.200375 1.061440 73 101 49
-32.515121 30.348166 6.822112 52 72 69
4.934985 30.584417 6.229563 243 250 242
-31.955263 28.891806 6.131884 14 22 24
-26.350370 21.665298 4.808487 3 12 5
5.095183 30.756718 6.403991 48 56 76
31.000734 77.647781 21.696119 37 20 5
-2.899768 13.541021 1.194543 122 138 106
4.110495 38.459599 11.400875 213 230 225
-0.973935 13.830338 2.866610 134 148 103
-1.778131 12.835314 2.634059 164 191 138
-17.008724 19.226137 0.875889 5 6 2
1.962168 39.440720 11.731230 214 232 227
24.292900 77.817139 12.468006 104 104 92
-1.436839 12.353262 3.056036 163 185 142
-0.272178 13.098619 -0.091876 142 124 107
-31.688932 28.655170 5.331303 242 251 242
-2.592687 13.193859 0.275622 242 250 240
-29.670755 29.463322 5.789124 58 67 62
-1.385582 12.211218 0.731298 103 144 88
-35.099411 32.211914 6.992303 83 99 95
-0.889905 12.462337 1.241914 45 60 32
-1.406399 12.190112 0.571381 40 57 33
-1.376227 12.160232 0.750816 103 144 88
-28.509024 30.506117 7.067334 91 100 97
-2.137348 12.497697 1.937808 133 173 84
-0.009122 12.897152 0.828596 64 66 55
-0.280767 14.104775 0.731876 52 52 28
-1.318110 12.567602 0.806455 69 108 70
-0.018867 12.828920 1.178950 88 104 64
-2.929835 13.356040 1.086059 72 78 71
-1.416434 12.422888 1.958759 223 251 198
-52.440990 51.045269 15.230323 124 135 127
-2.547298 13.323997 0.821383 118 143 109
-24.116631 32.811001 7.963487 86 97 96
4.904207 32.239803 7.470989 118 125 117
-0.850260 11.713068 0.800232 2 11 0
-0.430744 12.649289 1.057719 62 97 41
-0.262286 13.755015 0.330884 96 99 88
6.131127 31.729565 7.750585 123 82 59
-17.391134 18.492603 0.424835 74 84 77
-1.044701 11.958268 0.676401 74 107 53
0.916703 40.524654 11.382466 61 77 81
-19.905884 17.548754 1.675246 34 40 38
0.307221 12.106931 1.008432 131 151 107
-19.804035 16.790970 1.444338 62 93 82
-2.025580 12.235405 0.970595 83 104 51
-0.797643 12.583686 -0.319946 185 194 199
-0.842534 13.023406 -0.144690 22 41 12
-26.352283 24.359600 3.436965 59 62 64
-0.490440 13.053335 0.354836 51 66 41
-2.451727 12.371985 0.436370 71 79 67
-1.113466 12.677605 -0.151442 66 91 51
-21.267683 25.116419 3.645252 79 83 82
-0.643364 12.828107 0.607410 55 71 45
-30.123049 26.947742 4.520277 77 90 81
-0.717133 12.795591 1.077344 69 106 57
-2.269327 13.406281 -0.197111 33 45 35
-19.017738 26.733412 4.286378 73 75 70
-1.412768 12.346355 0.622288 52 81 29
-2.865968 13.734015 0.978218 26 34 16
-1.065846 12.261385 1.130612 3 6 0
-3.848948 25.845320 1.647481 45 57 32
-0.238809 13.186057 0.060036 233 242 230
14.594098 78.381927 11.439262 119 120 113
-1.532919 11.411470 0.601408 15 27 0
-31.303982 28.284964 5.425608 53 85 85
-0.308422 13.341389 0.058078 0 3 1
18.253206 78.227692 11.481187 30 13 12
-0.182059 12.294807 0.764388 75 80 49
-16.833017 27.502632 5.135419 10 8 2
-2.016137 12.426511 1.171533 75 111 48
-16.258263 18.951572 0.516815 59 65 57
-0.370033 13.548349 0.069593 68 97 67
3.736764 31.501238 5.829139 126 125 117
-0.727287 12.449565 0.774763 71 107 73
-2.929503 17.534433 2.263534 35 53 32
-2.016667 12.419607 1.170334 75 111 48
-0.211027 13.517258 0.338205 24 28 7
-1.114338 12.880702 0.120105 2 11 0
3.129369 31.807081 5.931703 23 22 34
-0.560517 12.033406 1.201449 75 111 64
-16.628914 20.662712 1.381279 56 54 51
-1.420803 12.672316 0.117405 18 55 3
-30.697601 27.922449 5.035332 180 197 193
-1.132674 12.446025 0.830272 35 61 10
-16.780174 28.345474 5.556215 23 25 27
-2.595051 13.425808 0.271231 81 102 81
-14.392588 22.908199 4.649513 0 3 0
-0.544057 12.456945 1.077904 36 53 19
-31.285923 30.787342 6.911708 29 35 48
-0.816671 12.897085 1.439394 103 124 92
-16.582315 20.566422 1.446517 70 76 76
-1.095808 12.751119 0.366332 3 7 0
-30.284140 28.356936 5.369439 33 37 40
-0.974911 12.455832 1.438338 64 94 19
-18.497522 16.783197 0.888832 78 90 90
-1.868711 12.472972 1.327229 83 105 61
-2.410737 12.801150 1.249246 31 39 10
-3.345038 13.814571 1.597202 159 172 141
-0.875193 12.857003 0.364404 17 32 6
-2.562365 13.742226 0.409917 233 244 231
-28.226597 29.358770 5.577619 63 70 68
-0.558513 12.379933 1.606607 89 103 43
-0.022606 40.017960 9.978333 8 7 4
-13.913781 22.373390 4.150949 7 10 6
-16.629524 22.176714 2.160856 94 105 98
-2.848133 14.141065 0.523971 53 67 36
-2.427109 13.445694 0.453572 61 77 36
-24.214582 26.758705 5.269174 27 33 35
-2.153128 12.820724 1.943602 102 127 70
-0.665298 12.565634 1.241371 8 22 0
-0.718880 12.623971 1.646937 74 103 27
-17.062727 21.311094 1.646704 74 82 71
-1.433885 12.424397 0.510420 104 143 88
-23.366934 27.813429 5.808715 89 98 91
-1.207622 12.373516 2.195101 122 143 90
-0.647801 12.675147 1.321655 74 89 70
-0.486272 12.514790 1.751443 157 185 114
-0.917758 12.599590 0.620941 23 34 13
-29.994474 29.924122 6.464637 1 4 8
-3.308935 4.863335 0.866614 0 0 0
-2.425294 13.364851 0.605382 111 133 99
-2.944874 4.489561 0.844602 103 114 105
-18.075590 33.139629 9.064147 152 169 168
-17.009890 21.890463 2.258735 13 13 17
7.760140 25.138453 4.006989 67 64 50
-0.331912 11.682241 0.421065 24 41 4
-2.763301 13.246367 0.658216 93 106 73
-15.905947 27.427080 6.929132 0 0 0
-1.897206 12.871176 2.803274 103 115 111
-51.764439 50.213009 16.274832 109 120 116
5.610443 23.167515 1.852532 24 13 17
-19.367155 36.009285 9.771259 1 5 5
-1.127449 12.180312 1.756389 190 228 178
5.404765 29.246626 4.106999 20 26 26
-1.283518 12.439342 1.041620 104 142 98
-48.681671 47.877472 13.679969 240 245 242
-2.697959 13.528709 1.964947 111 120 111
-1.178182 10.952711 1.567823 197 228 162
-1.541829 11.435582 0.561014 81 99 53
-3.391826 13.681266 1.673417 156 172 141
-48.828026 47.844685 14.345201 46 49 44
6.984707 22.494246 3.578473 84 88 83
-2.317491 12.544147 1.967272 147 159 146
3.486194 27.786188 4.443837 1 1 5
-53.664906 47.241581 22.563881 128 135 127
-1.416413 11.813667 2.093629 181 212 132
-54.810234 47.236168 22.918430 246 247 237
-17.264585 33.705883 4.833785 121 132 130
-19.348293 39.785660 10.868982 174 188 183
-16.189552 26.028709 4.365416 28 28 34
-28.021862 54.008915 29.426592 112 137 169
-18.999743 34.458591 9.613745 240 249 240
-15.963266 26.540958 4.287400 2 5 1
-5.111899 7.287340 -0.142069 114 121 114
-50.931248 51.795498 17.633320 210 241 239
4.901310 30.262390 6.300328 26 11 18
-19.520323 27.481131 4.720519 25 27 18
-22.735514 19.200682 1.177862 41 41 37
9.960294 16.665541 0.213192 35 36 47
-14.063954 28.779984 5.379775 123 136 135
-16.665808 19.253738 0.491046 0 1 1
-20.484095 29.551741 5.561734 36 32 31
-2.498761 13.215003 -0.288107 241 248 240
-52.330101 46.888901 24.069389 162 222 214
4.893968 30.511446 6.505964 56 56 62
-0.679357 12.868169 1.284252 28 50 12
-0.914018 11.734376 0.832103 108 144 74
-15.208220 26.229595 5.473001 153 175 167
-13.629419 22.682940 4.815516 70 64 61
-17.085623 21.412100 1.659094 57 60 55
-0.717304 12.632801 1.309487 119 150 114
-16.702229 21.413614 2.020312 8 15 8
-0.613093 13.655025 -1.908747 143 134 138
-21.046848 26.402153 4.196462 80 95 86
-0.924054 12.378676 1.640777 114 141 64
-34.092678 36.035339 9.424658 186 201 198
-1.867497 12.854865 -0.278122 7 1 6
-16.496454 25.896650 4.260070 96 100 95
-1.527080 11.305766 0.921577 112 134 109
-17.056246 18.219023 0.029490 45 46 37
-1.373298 12.595282 -0.166102 23 44 18
3.000067 30.159174 5.165807 0 1 0
-1.909820 12.678368 0.976460 112 134 109
-1.669898 12.695640 -0.107048 54 78 43
-30.540329 26.982244 4.416705 97 108 104
-2.913304 13.470424 1.021070 124 137 126
-21.047518 22.772015 2.315701 56 61 60
8.316019 26.753485 4.365471 168 173 161
-21.674755 17.680708 1.193593 197 248 242
-1.487992 12.762862 -0.012592 78 110 59
-1.597701 12.523569 1.020149 55 83 21
15.204823 43.354607 7.160228 165 171 158
-21.606216 17.625269 1.180885 197 248 242
-1.680242 3.243122 0.459463 127 142 131
-0.427574 12.908975 1.871552 107 118 56
-1.155151 12.624529 0.193807 0 11 0
-21.215662 27.602619 5.060659 85 99 90
-2.088451 11.694550 1.466245 116 132 83
-26.409710 37.889500 9.864100 94 105 100
-18.000616 33.541134 6.009080 56 59 63
-2.431562 13.135618 0.162482 84 107 62
-29.722332 29.273434 5.180019 29 24 25
1.788914 41.488514 8.691884 28 19 28
-30.980000 28.046488 5.191144 224 243 239
-2.442938 13.181126 0.159080 84 107 62
-32.320801 28.550131 5.219345 130 152 148
-0.498957 11.978318 1.772426 129 133 114
-1.557596 41.408482 11.056269 80 80 79
-16.839622 29.097342 5.700808 33 36 37
-31.152199 28.191494 5.212340 224 243 239
-2.309161 13.401180 0.179600 97 120 86
-29.562399 28.166964 5.211580 0 9 1
-2.068050 11.920641 1.982797 168 204 126
6.044152 33.318142 8.637370 219 235 226
2.514528 30.242588 5.757697 16 18 17
-0.219976 13.565433 0.282748 196 197 176
-23.679138 26.128414 4.996732 39 45 45
-13.371195 22.337841 4.861362 71 62 67
-17.666765 31.441038 8.294226 146 158 162
-53.070816 46.894917 15.903180 108 129 136
-0.219728 13.573383 0.285437 196 197 176
-16.624945 28.542799 5.420490 16 21 16
6.106008 31.673685 7.667722 123 89 68
0.334281 39.596085 9.644391 135 143 141
-55.029675 46.596977 23.728504 241 251 242
8.472977 13.845841 -2.186881 16 16 18
-17.410351 17.714058 -0.260767 41 43 43
0.111326 39.896149 10.485147 57 57 72
-30.944551 48.022743 22.968840 98 107 104
8.561964 13.879602 -2.066322 64 69 71
-30.379520 29.689381 6.170443 0 1 1
-19.849989 28.431709 7.566779 72 46 62
-0.267115 13.637304 -0.750374 53 45 37
9.240814 16.774422 0.161626 21 31 27
-21.689148 17.698793 1.018653 126 142 133
-0.760518 12.680655 1.682950 157 181 137
-30.246473 29.848572 6.236036 1 6 21
-0.965387 12.608302 0.457369 91 117 93
-21.806845 25.693031 5.653422 94 105 103
-20.138285 39.633652 10.810781 243 250 242
-2.620414 13.676396 0.383878 69 89 43
-30.227667 30.612204 6.555285 55 74 87
8.442482 13.654126 -2.020926 65 80 78
10.021276 78.703606 12.701939 56 55 48
-0.446145 13.933830 0.544813 32 34 9
9.307303 15.503029 -2.108133 47 64 55
-21.354753 23.213055 2.505519 54 56 47
-1.303811 12.582173 0.153042 7 34 1
-28.625225 29.057766 5.595835 14 14 18
-2.487754 13.389766 2.361375 175 194 174
-1.340462 12.240857 0.527743 43 83 26
30.559885 78.832008 17.923038 51 23 0
-1.294405 12.322312 0.792790 64 100 58
-0.267946 13.677389 0.309901 54 62 47
-1.530624 12.076525 1.932782 143 169 86
4.836267 30.868874 6.081014 47 33 47
29.128906 81.874184 13.071139 79 54 45
-2.490269 13.375743 0.519920 132 149 126
-20.177944 37.320049 9.826118 78 86 82
-2.520009 13.523963 0.424540 230 241 228
-2.419752 13.340633 2.648684 147 171 96
-0.558519 12.966435 0.656691 60 91 47
-19.906368 39.547062 11.121157 177 187 184
-0.782656 13.116013 0.407664 8 22 0
-1.399548 12.244679 0.620482 80 122 70
-1.512313 12.057897 0.393198 55 88 43
7.707374 22.173721 2.079716 75 84 73
-1.406525 12.250761 0.694389 50 93 32
-50.386555 48.848759 15.335418 55 53 56
-2.638724 13.712461 0.379001 93 109 63
-0.277776 12.990968 1.315324 83 84 74
18.637241 79.044968 11.893329 185 184 172
-0.725560 12.594283 1.010961 68 105 61
-21.552397 17.842463 1.208208 128 137 134
-2.595321 13.363848 0.639987 110 118 112
-50.319752 48.507103 15.478829 56 52 56
-2.522303 13.041914 0.386401 112 128 106
-26.824707 22.613934 4.175031 79 85 68
7.874084 21.777060 2.690899 83 84 88
-19.655495 15.380845 1.044995 126 127 122
-0.891410 12.622299 0.764424 21 38 10
-49.925938 47.470352 15.446674 201 205 198
-1.797871 12.573658 0.724786 31 53 0
-2.424923 12.760059 1.289788 66 88 37
-25.127073 23.103193 2.851637 122 138 145
-0.051115 11.660606 1.395045 211 236 208
-21.458008 24.724438 3.519809 124 143 136
-2.554254 13.265337 0.686914 135 155 127
-50.711143 47.102890 15.974092 76 80 75
-0.060792 12.937208 0.970473 77 85 35
-33.297127 29.881632 6.752078 4 22 28
5.408896 31.562717 4.194890 87 73 71
3.328011 31.301815 5.135227 86 90 85
-0.751851 12.669375 1.705894 184 216 151
-18.199562 26.976686 4.773282 143 160 152
-0.003426 13.311724 1.045980 111 117 93
-43.039188 54.053600 17.632673 197 217 218
0.220019 12.243461 0.972272 143 173 119
5.075039 30.838665 7.286192 64 68 63
-18.730726 25.916178 2.781400 72 82 81
-23.009247 28.450508 5.477671 79 90 91
-2.736091 13.359042 0.928413 88 101 52
-43.419312 53.956650 17.829344 223 248 244
-0.107001 12.855000 1.013987 107 120 91
-19.540613 40.614456 10.926190 89 101 98
-19.555279 36.353519 10.934707 24 26 30
-1.040321 12.348985 1.238682 0 7 0
-26.277603 59.978951 20.442856 196 214 207
-2.914305 13.096039 0.861414 99 117 80
-17.276876 25.646673 7.358408 15 14 4
-0.212740 12.556411 2.290982 220 225 191
-29.427248 29.095137 5.897130 33 44 46
-0.883754 12.998695 1.011704 86 115 79
-1.091273 12.303024 2.332861 126 137 109
8.615608 13.793320 -2.340639 16 16 15
4.845881 30.851955 5.985918 196 192 183
-20.065990 30.620590 6.390811 121 132 130
7.803080 21.795240 2.522898 45 63 67
-23.845032 59.625683 21.283628 177 190 187
5.727295 24.674574 2.376938 38 33 38
-54.839214 48.254154 16.571178 74 95 94
-1.373395 12.489252 1.508492 19 38 1
-25.805059 58.182533 23.312157 213 229 220
-1.989131 13.240130 1.758499 129 160 114
1.285041 40.053478 10.913347 33 29 45
-2.553171 14.285994 -0.914984 81 82 83
5.288099 30.521666 3.923040 4 2 3
-15.109763 57.668877 27.785646 181 194 203
-0.542773 12.625616 1.786605 130 141 89
-23.223436 26.719515 4.872407 10 1 1
-0.344242 12.847919 1.888847 136 157 103
-15.615858 58.896748 29.712803 184 192 191
3.874277 27.853912 4.031187 100 103 98
-28.806376 47.357159 25.742620 219 237 237
10.076571 39.168854 6.093910 197 205 193
-1.209931 12.781632 1.515911 22 35 6
8.676724 26.890160 4.374288 62 65 59
-32.694710 51.778206 28.305199 212 240 241
-1.233912 12.276505 1.956744 175 205 103
-1.236746 12.249912 2.311097 195 214 161
-18.532059 33.976303 6.569905 59 54 59
-0.296626 13.670328 0.384622 158 161 141
0.298704 6.011774 1.187991 106 118 81
11.857080 67.395866 32.615562 189 196 185
-1.297693 12.217269 2.181087 216 249 156
-31.113543 27.380369 5.491233 97 103 101
3.162717 29.844021 5.147219 85 89 86
-29.206074 54.185749 29.243452 207 229 234
-0.948336 12.434617 2.302208 174 198 129
-26.138020 36.391644 9.423673 95 101 100
5.165279 30.733206 5.695717 194 195 185
-29.588995 53.682915 29.089800 150 177 197
-1.028899 12.823627 2.363107 174 198 129
5.455131 23.032906 1.832949 85 83 78
-17.921076 32.414207 5.988741 57 70 69
-0.771979 12.511613 0.791858 69 99 60
-2.690416 12.311849 1.130412 107 122 109
-1.796532 12.331039 1.479058 61 86 21
-0.893078 16.327255 2.848556 130 151 79
5.452706 30.478424 5.914836 188 191 175
-17.695217 59.794472 31.433571 53 105 143
-0.772406 12.513216 0.794997 69 99 60
-20.911186 24.822790 3.501308 26 17 15
1.507597 39.758492 11.093959 45 51 53
-2.396585 13.775966 -0.438420 241 248 240
-2.108205 12.100944 2.507442 141 160 115
-28.953085 53.598625 29.354418 205 227 235
-1.369217 12.064959 2.955467 198 221 170
-1.224071 12.839879 0.845516 16 25 3
-0.962209 12.282367 1.179384 69 92 26
-20.700914 24.930164 3.588477 4 10 5
5.529912 23.132408 2.055136 23 30 22
-2.402668 13.726260 -0.441800 241 248 240
4.679403 30.585506 6.197136 47 62 70
-30.434080 53.533360 29.485823 206 233 235
-15.030921 23.734299 4.363946 183 219 214
-26.041393 25.334721 4.057852 147 163 164
4.712196 30.802734 6.379066 65 76 76
10.017500 16.433001 -0.013691 66 80 71
-15.509513 26.470087 6.608480 76 80 81
-2.843455 13.410135 1.092362 70 87 38
-0.992082 12.724255 2.363763 121 123 110
0.703639 1.932410 0.409435 60 64 32
4.863160 31.306168 7.159680 16 18 34
-21.681303 32.058949 7.381619 98 106 100
-6.950802 9.898026 5.631533 231 251 245
0.033735 12.809461 1.083765 69 88 41
-52.868176 47.418236 23.543034 185 215 216
-1.783076 12.439835 0.167215 75 111 64
-14.605174 24.975840 5.415215 73 79 83
-20.608362 59.740822 26.714911 201 212 204
-2.317296 12.758711 0.970820 73 93 48
0.028554 12.849460 1.081591 69 88 41
-16.058477 59.672237 27.642811 170 185 182
-1.513030 12.224175 0.212556 68 105 64
1.934416 38.197285 9.458246 43 53 49
-0.981107 12.476031 1.378054 55 68 24
-54.315441 47.020550 25.659693 199 227 220
-1.568089 12.048511 0.398496 83 114 59
-1.089776 12.409113 0.378546 0 6 0
-28.952377 28.996035 5.907485 2 5 5
-1.238499 12.053023 1.368931 74 103 28
-1.303214 12.195230 1.353778 46 63 24
-1.882573 12.283445 0.979495 67 93 48
-30.689045 28.698870 5.964454 62 71 71
-0.756449 12.749821 1.554010 136 157 118
0.009730 37.132088 9.409544 124 125 116
9.357270 13.590197 -1.677090 80 91 98
5.543695 22.431896 2.476657 49 40 46
-19.865028 27.587421 4.637439 66 78 70
2.691918 31.755571 6.630500 26 29 28
-29.325212 26.050747 6.004545 96 115 111
-0.963540 12.367811 1.570335 77 106 27
-49.816879 47.609116 15.102750 110 124 115
-2.214150 13.176499 2.141938 116 125 78
2.238346 32.494247 6.365159 5 4 4
6.919061 24.658182 2.300608 66 70 66
-21.642874 24.655165 3.689004 79 89 82
5.031757 32.508995 7.780026 42 42 51
-0.442890 12.233303 1.333208 34 49 16
-1.967870 12.356866 1.206520 69 95 19
-2.603863 13.045795 0.464915 85 98 81
-1.043102 12.361317 1.144278 66 87 45
-1.952781 12.216545 1.169482 33 45 14
-19.283682 27.856462 4.913024 135 158 152
5.987298 31.184027 4.688286 178 183 170
-2.100877 12.889916 -0.049245 15 24 9
-1.652319 12.170712 0.173328 74 108 57
5.951055 31.118736 4.665076 178 183 170
-1.163299 11.988571 0.801058 29 45 9
-1.215270 12.418341 2.318544 127 135 122
-2.385617 13.276197 -0.022609 4 4 5
-21.253553 27.471333 4.951226 134 152 148
4.460069 30.479692 6.380785 42 53 60
-0.886200 11.875289 1.956676 142 167 103
-1.800473 12.559134 1.233117 31 49 2
-21.254080 59.558147 21.823347 183 191 185
-0.768177 12.421359 1.323752 41 60 12
-46.126022 50.056396 22.550413 187 203 199
-18.208757 33.395790 6.467270 59 54 59
7.171226 32.279270 6.318336 181 182 173
-3.609587 64.849678 21.811348 207 221 221
-2.141590 12.931685 -0.047638 10 15 13
18.255688 29.824139 5.573682 133 94 53
4.948657 30.724798 5.949975 198 195 197
-17.433979 31.213354 5.377060 63 85 85
-17.368713 18.862934 0.788303 99 111 104
-2.663110 12.822607 0.573658 96 110 96
-18.972834 33.700680 9.897084 42 34 45
5.339591 30.536634 5.714797 52 49 63
-2.104764 12.766166 0.935408 52 74 23
-1.531584 13.759481 -1.251251 241 248 240
36.157028 52.403667 16.148010 69 78 37
-0.013730 12.800450 1.104789 97 108 89
-50.286140 46.809635 15.656331 79 60 76
4.411913 30.781219 6.424152 41 36 48
5.858132 22.854282 2.793719 53 64 60
-1.535326 13.788518 -1.257166 241 248 240
35.873524 51.379890 16.741707 87 106 66
2.263743 39.980228 11.153216 94 96 96
-2.343750 11.382823 2.162707 153 185 99
5.876466 31.381210 7.632296 223 232 220
-16.985388 23.771528 2.879246 29 23 22
-1.177523 12.171169 0.344249 20 47 2
-2.342660 13.315285 0.574926 72 90 57
5.607222 31.351849 7.616423 89 99 93
4.861891 32.141609 7.427800 114 124 113
-2.162328 13.892559 -2.116607 56 60 77
-1.459609 12.443133 0.691328 42 76 27
-16.093536 27.842491 7.174753 96 105 98
-2.342660 13.315285 0.574926 72 90 57
-2.474133 13.551959 2.813507 115 122 101
0.018339 37.993484 9.281323 6 7 11
33.815205 53.526279 12.832664 113 135 95
5.125909 30.344284 5.923129 241 248 240
-1.105170 12.561099 0.824090 49 69 29
-0.025328 12.503895 0.826221 69 87 43
-1.452512 12.343743 0.752218 54 82 30
-2.497897 13.456228 2.785879 147 164 109
5.094088 30.753511 6.399934 36 26 42
34.963360 49.481289 5.611034 36 45 26
-0.399416 12.686257 -0.180605 157 155 149
-1.412490 12.462375 0.852740 46 83 32
-0.701587 12.537039 0.881251 27 53 10
-2.275547 12.853209 2.672658 112 121 105
5.984975 31.315002 7.505275 79 58 43
-1.661580 13.251188 1.924436 132 158 72
-0.837827 12.711696 -0.128749 57 88 53
-16.267426 21.083544 1.991117 7 6 7
5.865499 32.004936 8.004442 16 16 18
-1.673252 13.589870 2.047982 127 164 95
-1.108465 12.615046 0.180967 27 37 17
-1.533917 12.471786 0.935041 76 107 67
5.335121 22.881323 2.152968 38 22 25
-1.623556 12.544496 1.324471 130 160 117
4.938171 30.681038 6.071075 24 26 42
30.874226 46.349300 10.283008 91 127 80
-1.284456 11.804770 1.301006 119 153 59
-2.589147 13.750446 0.401795 229 246 227
-1.368915 12.376716 1.108675 44 62 18
-1.828211 12.966439 1.371534 45 69 19
4.238567 30.700680 6.271224 181 177 166
32.214561 48.679420 11.674246 89 131 81
5.487636 30.908020 4.901029 165 163 155
-0.288577 13.714586 0.389017 212 217 195
-0.117831 40.075188 10.123993 37 40 51
-2.634634 13.067946 0.436119 75 89 51
-16.822470 23.710049 3.096216 100 124 113
-1.207813 12.299088 2.167189 109 124 84
-0.363099 13.747599 0.394282 65 56 45
33.656776 49.429638 12.310975 30 43 20
-2.555973 12.784559 0.426582 75 89 51
-20.646502 24.513165 3.267063 67 73 77
-17.720760 26.550787 3.812146 84 94 86
-2.276055 13.305549 0.330797 82 102 60
-9.515099 24.088923 6.646770 126 139 134
-0.919007 12.458570 1.492540 96 124 54
-17.973040 32.443325 5.517525 43 57 46
-19.344288 36.199627 9.868773 60 66 68
-0.344037 13.534594 0.445988 184 185 165
5.593278 30.908367 4.378489 42 42 46
-25.351141 24.075632 3.377040 107 131 125
30.317074 79.159721 17.155930 116 85 47
-18.529182 35.599358 10.243533 86 90 86
4.886443 30.636673 6.707928 28 23 31
-19.873062 37.689148 10.833649 14 13 15
-0.748039 12.470987 0.872691 74 108 62
34.427826 48.480473 14.102632 57 83 42
-16.712723 23.076105 2.607642 29 28 30
5.982390 32.171394 5.552083 145 149 139
5.996536 30.954672 4.498655 69 52 45
35.397476 52.771046 18.325098 97 84 47
3.152745 30.581358 5.753574 36 36 49
-23.243622 24.824183 3.779253 77 66 72
-1.838738 12.483362 1.018759 82 109 62
-19.989872 39.327885 11.337753 234 243 239
3.716382 33.162598 5.577092 175 179 167
-0.710527 13.208581 -0.157185 0 0 0
30.358719 79.578041 16.570393 129 91 54
-0.706913 12.346317 0.130019 28 55 19
-18.116085 34.069572 6.019910 130 151 153
-19.390932 17.144579 1.252778 102 120 113
6.057376 23.489304 2.787451 31 39 34
32.637966 48.264019 9.958347 91 117 76
-0.858879 12.437491 0.587234 86 103 76
5.320911 30.370455 5.868062 89 67 52
-2.877856 43.929855 11.741026 85 87 84
-1.449637 12.765779 0.200319 28 66 13
-1.371176 12.465099 2.147979 172 198 129
29.545214 81.337349 13.624637 173 180 172
-33.700111 36.549644 14.700877 0 0 0
-1.126346 12.178159 0.514440 47 73 34
38.357990 58.503006 8.256522 134 101 62
-2.019814 12.915013 -0.251837 13 7 25
-1.364315 12.428320 2.137049 172 198 129
-17.538855 32.326611 5.628238 76 101 93
-14.507126 60.630939 26.842512 183 188 180
-2.342031 13.404984 0.325132 58 80 35
-17.635115 33.381432 6.000408 110 123 137
-17.532284 25.584337 3.792588 118 128 125
-0.439570 13.301425 0.090122 3 5 4
-2.424110 13.503237 0.326012 97 116 83
-2.393558 13.337063 2.086342 118 126 113
-17.660612 26.294058 4.136056 12 15 14
-23.483654 36.168922 9.808167 96 104 103
-1.236650 12.754351 0.157225 62 87 44
0.423146 40.107063 10.690133 77 87 85
-27.699938 30.019503 5.545076 121 141 135
5.213619 30.935015 6.914893 41 25 31
-1.955152 13.273640 0.444556 25 39 1
-16.675596 32.997219 6.818729 104 125 118
-23.151598 24.958988 3.804811 129 135 133
-16.718760 28.721703 5.675375 136 153 147
-2.659497 12.460379 0.586533 78 88 72
-2.474073 13.419109 0.388392 73 84 56
2.938517 30.438032 5.526158 26 24 24
32.268826 75.970245 25.901550 136 99 56
-2.668128 13.375207 0.964882 100 125 85
35.041821 49.141914 9.225966 106 91 58
-17.065294 30.392864 6.593018 65 70 71
-0.790373 12.800009 1.715255 138 157 108
-17.094997 30.444384 6.601781 65 70 71
-21.540525 24.609863 3.773413 129 134 134
-12.896705 21.733023 4.447208 54 71 69
5.205041 28.416298 4.796883 152 156 150
2.028404 40.100651 10.580200 40 46 49
10.389496 24.679152 4.262721 134 86 36
-13.450039 21.516706 5.566185 23 17 20
-13.567627 16.243135 -1.003619 73 74 68
-1.127462 13.004399 0.970011 22 36 1
-17.130726 32.600697 6.447023 106 117 109
-0.167560 39.100010 9.742233 12 14 28
-21.433292 26.958319 4.608832 90 98 95
-1.504860 12.563820 0.453369 93 131 85
-22.052395 18.384733 0.357403 8 4 1
-2.340757 13.373934 -0.571957 241 248 240
-6.509604 18.767967 5.326908 217 250 241
3.334348 34.779961 8.610518 45 57 59
34.577179 47.930115 16.209766 66 62 29
8.087335 13.126326 -2.135321 8 10 5
-2.381095 13.449642 0.275063 107 128 95
9.690165 15.324117 -1.201734 20 26 31
-1.688421 12.641336 1.298868 24 53 1
-16.696466 20.699039 1.374850 56 54 51
-1.086995 12.728732 0.251185 46 60 36
-31.391214 28.174723 5.216859 233 245 240
0.092684 13.087569 0.986836 112 143 90
-2.822988 13.426222 1.187453 43 48 24
-1.570326 16.063988 3.069067 107 126 93
-2.329895 13.538610 0.241887 26 36 9
-2.307733 13.415927 0.346463 79 105 63
-2.365160 13.831585 0.195651 0 3 0
-0.583944 12.485094 1.176286 88 118 79
-0.378853 13.262609 1.784436 125 139 76
-0.282780 13.699613 0.381053 207 212 198
-0.318048 13.220180 -0.068970 147 169 179
-0.380827 13.352926 1.804531 125 139 76
5.204985 23.396877 2.139547 62 59 54
9.666228 13.547095 -1.529463 31 48 66
-2.618316 13.318737 0.271388 242 250 240
-29.453501 29.316910 6.140717 94 120 118
4.021499 27.403097 3.974958 198 200 188
5.757844 33.181358 6.156645 24 24 27
-0.929279 12.370456 1.161891 68 97 45
-18.759199 14.960823 3.397262 29 45 5
-2.615685 13.091256 0.267428 90 88 75
4.471559 30.403736 6.090341 116 129 116
-2.055419 13.216073 0.248751 75 108 64
-13.539888 22.902147 4.234566 47 58 56
-2.052127 13.207741 0.243834 75 108 64
-31.673944 28.223919 5.769765 152 173 188
-0.193193 13.376953 0.217223 205 218 201
-1.670192 12.692508 1.346054 103 127 89
-0.665214 13.565268 0.183826 7 13 0
-1.185082 12.623086 0.096280 64 90 50
-0.693522 12.450254 1.727862 102 121 69
-0.951899 12.866534 0.076689 51 69 36
-21.563164 24.549196 3.359508 8 12 7
-0.723465 12.271610 0.008970 59 91 49
-17.283098 22.269775 2.463262 102 110 99
-1.572873 12.544356 -0.068179 69 102 61
-17.792234 23.020924 2.553723 0 4 1
-1.625051 12.662934 -0.134053 2 26 0
-1.568334 11.864855 2.618452 116 125 116
-0.533808 12.684907 -0.101924 98 119 96
-0.416192 12.184931 0.323206 31 48 21
-1.402978 12.597146 -0.207853 55 85 47
-17.714708 18.715464 0.659725 40 45 32
9.381701 16.753401 -1.252744 23 25 25
-17.794794 18.603506 0.635205 36 42 40
8.478602 13.990554 -1.998160 38 55 52
-17.794794 18.603506 0.635205 36 42 40
8.387766 13.756650 -2.201501 67 64 57
-0.194849 13.498494 0.107458 79 63 50
8.172771 13.230755 -2.194520 53 57 48
-1.321622 12.701965 -0.026132 47 65 36
8.917473 13.890411 -2.296542 32 30 25
-0.259497 13.468350 0.055089 75 63 47
8.561961 13.647252 -2.279286 60 68 55
-17.369495 18.793390 0.390613 101 102 98
8.575850 13.666624 -2.282893 60 68 55
8.669678 13.683407 -2.292493 61 60 49
8.611626 13.658333 -2.319031 9 11 2
-16.133875 17.853945 0.016694 68 74 66
8.544193 14.148357 -2.100735 16 20 20
8.708105 13.678854 -2.331378 14 23 15
-15.284643 16.608541 -0.462746 6 5 0
8.566424 13.788621 -2.301689 58 60 49
-16.176456 16.928411 -0.790530 6 12 6
-19.405787 36.338230 9.917386 38 55 57
-31.884134 55.808910 25.048807 194 216 215
-0.916992 13.820979 2.808733 104 126 68
-1.647590 12.254075 1.926935 94 91 83
-1.752870 12.922274 2.571094 182 208 162
-32.817734 29.807859 6.587110 96 102 100
-18.234486 26.679962 4.511565 139 152 149
-32.165264 29.162952 6.409520 96 102 100
-1.458160 12.207028 2.281985 160 205 99
-1.555405 12.332924 1.467116 109 135 52
-17.528708 25.880238 3.682495 4 2 0
-0.713311 12.327966 1.646353 175 204 140
-1.011498 12.047014 1.485009 82 101 51
-21.755196 17.940872 0.046495 57 70 70
-0.829167 12.944405 1.613839 47 66 7
-17.177946 17.880207 -0.115742 32 32 34
-3.092493 13.538179 1.414307 144 161 136
-54.247803 46.759045 26.065992 72 38 58
-1.871274 12.947969 1.353531 101 121 83
-52.432308 47.230808 24.699955 238 248 241
-0.365490 12.716536 1.355126 102 111 93
-53.832718 47.205868 24.279482 193 218 219
-2.336976 13.338180 0.340469 61 84 43
-0.634984 12.461195 1.068795 45 67 18
-19.666630 15.019110 3.218543 1 17 1
-0.677683 12.578185 1.019191 38 65 22
-17.014565 29.672014 6.083681 1 2 4
-0.510970 12.996723 0.708234 30 43 9
-2.384851 13.388412 0.523439 93 118 79
-55.166798 47.066795 25.750483 49 43 45
-0.473885 14.981529 0.067947 69 90 61
-39.067368 49.881924 22.212456 202 228 226
9.603846 15.492045 -0.998540 26 28 34
-21.141113 15.538488 6.549314 52 59 33
3.278361 30.920950 5.996584 33 36 46
-20.087145 15.168123 2.768129 22 45 9
30.314920 79.770058 14.367697 77 29 7
-27.364351 26.455706 4.524880 128 150 151
-0.998494 12.308697 1.737577 124 146 85
4.439379 37.172531 6.097223 119 117 109
-1.043215 12.640712 1.252228 86 113 55
-0.579130 13.228930 0.465857 8 13 1
-1.249804 12.298097 1.157278 102 136 98
-0.579130 13.228930 0.465857 8 13 1
-0.945774 12.265572 1.108077 59 90 44
-19.910191 17.594088 0.890027 54 62 61
-2.512170 13.880088 0.194519 32 44 10
-21.183180 16.840519 -0.003408 29 48 24
-0.229571 13.302547 -0.751278 87 81 70
-26.467262 57.731915 25.673826 204 217 214
-17.864376 26.206408 7.278500 31 29 33
-27.112652 24.089069 6.377892 11 11 11
-20.247486 28.727730 7.701428 232 250 240
-28.320728 25.129343 6.655138 11 11 11
-19.472567 28.250978 7.577412 208 250 244
-19.394335 14.729197 2.970611 47 67 44
-19.240463 28.232468 5.246240 153 160 157
-19.392845 14.725769 2.967481 47 67 44
-19.905792 28.352266 5.012944 27 18 24
-1.042599 12.082532 1.071485 10 19 0
-13.577151 22.785683 4.085308 65 72 71
-16.258194 19.827486 0.953742 73 75 70
-16.453856 26.646631 4.402333 126 150 146
-21.951683 18.808405 0.520863 10 7 4
5.153484 30.591473 5.972170 239 248 240
-0.379713 13.181554 2.262495 189 210 118
-20.859167 17.426537 8.396721 240 249 240
-0.397354 13.305240 2.285022 189 210 118
5.647617 30.696354 4.524227 25 24 26
-0.809033 12.600233 1.471025 48 60 26
5.495647 28.775267 4.096561 25 24 26
-1.320764 12.870461 -0.300009 2 2 1
-20.885239 16.568129 1.580042 57 77 53
-19.538483 35.971523 10.774523 17 26 28
-19.823568 15.406706 3.823823 21 28 25
-20.326723 29.542154 5.937815 126 142 141
-21.035442 17.489916 0.514250 74 101 95
-19.886398 28.908079 5.786383 126 142 141
-0.976440 12.338645 0.707024 14 16 7
-19.598072 27.954613 4.700947 117 126 124
-2.468886 13.404252 -0.750196 241 248 240
-1.866163 12.683991 2.019943 128 161 73
-14.462337 27.499664 4.638682 2 3 1
-2.053411 12.998717 0.377010 63 106 48
-19.992268 17.656939 1.240427 103 116 112
-0.884268 12.545053 1.821771 88 105 36
-12.396765 10.556654 -3.363526 41 44 45
-0.887408 12.593242 1.842480 88 105 36
-0.364381 11.733607 1.554201 146 182 98
-0.364381 11.733607 1.554201 146 182 98
-20.841118 25.091990 3.407425 49 48 45
-1.196124 12.193101 1.599856 106 144 47
-16.933786 19.346617 0.621577 76 86 81
-1.636672 12.585100 1.271064 95 117 80
-0.539239 12.475891 0.479279 64 101 55
-15.760819 60.585899 26.862318 162 172 164
-0.561699 12.577241 0.485865 64 101 55
-23.465034 21.801851 2.225353 38 55 52
-19.161650 27.687605 5.217243 29 17 26
-20.745903 26.280258 4.151855 2 2 2
-1.258112 12.486840 2.494142 119 124 117
-2.028089 12.109518 1.333947 129 160 69
-0.901149 12.423133 0.831862 31 37 10
-0.887708 12.370449 0.832266 31 37 10
-29.919323 26.573412 4.305062 107 117 110
-1.126219 13.799358 2.930961 111 117 112
-0.713418 13.400494 2.397334 117 122 112
-49.078144 45.292381 13.258003 73 74 72
-2.299797 13.022319 2.304596 120 145 87
-35.337509 36.709354 9.547136 155 163 160
-18.322109 33.758778 5.506700 6 6 2
-2.385184 12.992640 2.254395 93 94 81
-1.027214 12.750204 0.462762 8 25 4
-30.262896 32.131180 7.501691 56 59 59
4.493690 31.522726 6.495719 3 2 17
-27.082214 30.770231 6.806207 124 137 134
-2.480415 13.413806 0.684774 82 97 75
-1.818618 12.814714 1.823660 67 91 24
-1.006114 14.027506 3.219058 183 192 181
-22.460440 25.788954 4.245409 98 94 95
-4.522071 8.796944 1.762337 43 39 34
-24.302675 26.254375 4.292244 37 28 28
-2.493432 13.737959 2.465496 114 117 97
-23.363253 24.174925 3.363607 37 39 41
-1.935910 12.640875 2.167778 143 177 88
0.056155 12.092908 0.975877 42 44 12
-0.995497 12.369280 1.830316 134 157 82
-16.665661 22.371603 2.133931 65 63 59
-20.065847 17.716553 1.992409 88 87 83
-0.949134 12.124400 1.415881 92 120 75
-19.830221 17.009846 1.768983 61 69 62
-2.634897 13.266135 1.463339 61 88 30
-2.196862 12.448064 0.916053 94 103 85
-0.350061 13.552822 0.869604 38 48 13
-0.788751 12.504405 0.709754 76 103 70
-17.095142 19.483519 0.730077 14 17 11
-0.760832 12.584708 0.716929 16 35 10
-0.462620 13.953804 0.731174 7 8 1
-0.199546 13.409771 0.307041 21 26 4
-0.024398 11.420604 0.645890 56 65 28
-2.499746 13.680649 0.269943 34 51 20
-2.289406 13.272122 0.585838 87 114 86
-17.211990 19.006386 0.592551 104 110 112
-2.302546 13.435082 0.509486 176 195 169
-0.324601 12.057443 -0.041361 0 3 0
-1.489844 12.762956 0.065706 60 93 48
-51.588795 47.009933 15.112352 45 76 84
-0.479763 13.182595 -0.087475 14 8 6
-19.169058 36.546249 10.242338 3 4 5
-0.851288 12.690454 -0.192789 40 68 37
-1.502932 12.619787 2.316241 84 98 46
-1.941409 12.814053 -0.258748 18 16 20
-2.574743 13.554159 2.482365 128 140 106
9.525067 15.884414 -1.538947 39 51 51
-34.282345 34.212879 8.656582 4 1 2
8.638147 13.637274 -2.282936 54 60 53
-33.687595 30.129204 7.098366 4 19 21
-1.053949 12.103610 2.239415 113 118 106
-21.256039 32.119476 6.920108 3 7 4
-2.118947 13.010004 1.885565 116 137 86
3.953726 29.553768 5.823834 124 132 121
-0.816760 12.914819 1.719850 150 182 110
-1.953735 12.587157 1.556182 33 52 7
-1.634096 12.686214 1.468881 163 204 142
3.143194 31.955135 5.516225 75 78 69
0.407479 12.235341 1.081926 136 157 107
-21.697605 24.303667 3.556624 109 116 109
-1.322224 12.793097 -0.198413 13 32 2
-19.311523 17.608564 1.431700 88 104 100
9.732764 16.325132 -0.819261 24 30 33
-23.720400 21.979239 2.176458 77 84 87
9.557071 15.457073 -1.120154 20 28 34
-20.560400 16.831200 1.178383 101 114 103
8.604188 13.649343 -2.321493 27 23 24
-20.671717 19.542414 1.420041 6 6 1
-0.848278 12.570481 0.658302 73 100 69
-20.685122 35.152836 12.277136 115 121 118
-0.843809 12.556827 0.656436 73 100 69
-18.563860 15.357725 4.319019 47 66 32
-1.252811 11.919069 1.244216 53 83 22
-1.594357 12.292152 1.877615 143 183 75
-17.220301 18.168198 -0.027632 35 43 37
-1.861009 12.574831 0.410038 33 62 19
-14.427799 14.185312 -1.633059 5 9 2
-0.636136 13.020348 1.808044 103 114 64
-0.654746 12.635487 -1.114867 0 0 0
-0.952097 11.872051 0.835363 81 120 52
3.361996 32.291882 6.233300 242 251 241
-1.686848 12.188745 0.213277 62 105 58
3.355209 31.748011 6.074885 242 251 241
0.634475 40.734215 10.191580 114 119 116
-17.095066 19.067308 0.648491 105 113 110
-1.051655 12.067106 2.002364 110 120 106
-0.472842 12.574885 -0.052139 51 61 36
8.158726 20.787495 1.835348 33 35 39
-19.493000 16.298088 2.072336 54 65 35
7.800218 25.556044 1.980835 33 37 40
-20.730736 17.403904 1.202376 104 129 116
7.277152 24.765320 1.253991 24 25 24
-0.257583 12.295479 1.607149 114 120 85
5.133499 26.597504 3.091128 119 105 94
-15.384033 25.722227 4.610173 11 9 6
-1.024074 13.660784 2.401450 144 166 91
7.296509 24.370012 1.133783 3 9 11
-2.470051 13.115905 0.763663 103 122 89
29.605494 82.403809 14.316358 160 160 151
-13.237732 26.825718 3.977588 81 90 83
-1.027412 12.183570 -0.037896 1 7 1
-2.515319 13.271112 0.687448 73 98 63
-15.422662 25.437252 3.278346 75 88 79
-0.342628 39.963631 10.175739 193 199 191
-0.403999 12.201863 0.001842 5 13 2
-2.771865 12.773516 0.612511 73 89 53
-37.282978 40.121071 10.669414 160 174 165
-3.213586 13.267682 1.472938 100 117 97
-19.502752 27.617998 7.175814 156 168 170
-2.665943 12.730019 0.530134 65 79 52
1.695098 40.237213 8.607015 133 147 135
-2.415110 14.110988 -1.964214 62 60 66
-1.229576 12.227033 2.198789 190 207 146
3.184958 30.966307 5.562828 242 250 240
3.024014 29.933523 5.242563 29 31 46
-1.731710 12.655345 2.020255 105 116 93
-1.721981 12.463819 1.954436 134 159 102
-27.972511 54.198349 29.671616 181 194 204
-2.109110 10.881678 1.584388 142 165 123
-30.004311 54.406078 29.309601 185 199 204
-0.294877 12.786969 1.931456 127 141 108
-32.268307 53.150902 28.578085 172 192 195
-0.296167 12.807220 1.933186 127 141 108
-33.901127 52.290241 28.241020 186 204 207
-1.684655 12.456030 1.824458 107 124 96
-35.361877 53.764347 28.956942 158 166 166
-0.348891 12.884553 1.891987 123 149 96
-54.284863 47.536877 25.759380 13 5 9
-0.158170 14.043477 2.023261 108 117 100
-53.810398 47.146385 23.152264 129 148 138
-1.198243 12.326193 1.723400 72 92 8
-50.649792 47.102238 16.024826 66 74 72
-0.425466 12.899102 1.698624 87 110 42
-27.173311 59.143368 18.828728 169 187 185
-0.966308 12.402695 1.524812 77 106 27
-50.833504 46.720470 14.700162 51 63 62
-1.192446 12.248435 1.531685 111 142 75
-3.204424 13.666838 1.501069 153 175 148
-1.205727 12.224274 1.400380 93 108 80
-1.684079 12.547507 1.384313 51 81 5
-0.706789 12.591555 1.405810 156 183 154
-34.389118 31.884518 7.713446 8 7 4
-0.776522 12.443608 1.321599 3 24 1
-1.141134 12.634416 1.352072 0 3 0
-2.154433 12.604153 1.246714 124 158 124
-2.106778 12.451773 1.222267 73 82 64
9.362117 19.639864 1.850012 61 73 66
-16.809931 28.843197 5.682968 109 121 114
-0.405331 12.591028 0.866080 32 53 10
3.811039 29.400894 5.644751 1 1 0
-1.458476 11.882727 0.762731 83 113 64
-0.508758 12.399507 0.975000 2 11 0
9.211153 19.208086 1.513262 49 61 65
9.124615 19.004704 1.502872 49 61 65
-1.163636 12.056901 0.799549 45 67 41
-1.512687 12.278703 0.588619 29 49 13
-1.505319 11.397207 0.621275 48 67 26
-1.165020 12.298693 0.690435 63 88 49
-20.752430 28.060049 5.093947 58 65 58
8.993183 18.829216 1.456536 34 39 46
-1.538218 12.841631 0.930304 21 38 12
0.256089 12.767938 0.505437 113 130 109
-1.590542 11.842601 0.512151 9 22 0
-2.226183 13.336142 0.310833 51 72 33
-25.651361 24.572212 3.784005 92 107 102
-0.608864 12.315093 0.314098 72 103 55
-1.804733 12.511847 0.248741 21 45 1
-20.780300 26.251451 4.021537 76 86 75
-0.331761 13.889920 0.296049 108 114 99
-23.124741 24.531639 3.651253 17 16 12
-0.526389 13.103496 0.274450 53 66 45
-23.442869 24.502562 3.527432 14 15 10
-1.014141 12.922676 0.190047 16 24 2
-23.503937 24.564476 3.538029 14 15 10
-1.986628 13.071994 0.069265 78 107 65
-20.619076 25.649694 3.788796 61 68 63
-0.105376 13.178737 0.022575 111 132 104
-1.562554 12.021030 0.441413 36 55 22
6.766820 10.787628 -0.540152 29 37 38
-21.004759 25.632118 3.576923 46 47 43
-2.320564 14.049497 -2.035167 73 72 76
-21.217646 24.630163 3.221399 41 36 34
8.337260 13.404622 -2.230346 69 66 61
-21.542524 24.633976 3.193653 30 35 33
8.515092 13.790677 -2.328901 24 16 15
-23.090733 23.316542 2.798499 82 90 83
8.795987 13.709886 -2.405833 11 14 16
-2.634707 13.569219 0.321434 21 30 5
-16.286875 28.105841 7.474473 61 70 70
-1.812781 12.560273 0.005544 36 54 29
-19.135807 27.382948 7.031600 149 152 154
-17.058529 19.686914 0.940463 87 96 87
0.162473 40.343082 9.970152 18 3 10
-1.987919 13.045835 -0.159905 35 43 28
1.949249 41.277473 9.597342 104 109 97
-3.697380 5.331369 0.927947 86 82 84
-25.329157 25.057076 1.798942 48 46 42
-0.564662 13.385196 2.046663 108 116 93
-21.516129 18.648521 0.290766 43 52 45
-16.541431 23.141907 2.539361 83 76 79
-21.242651 17.314297 -0.209915 2 7 6
0.659479 0.788949 0.397668 0 0 0
-16.702869 58.595875 31.019209 14 54 91
-1.694307 12.339448 1.445056 77 111 59
5.594080 23.777304 2.336254 32 32 35
-53.184856 46.542690 26.331402 227 250 244
-0.885531 12.874748 1.124506 0 2 0
-53.538528 46.697189 26.201015 100 100 107
-1.533977 11.749027 0.999448 129 168 98
-53.416401 46.649937 25.671040 28 20 21
-1.581960 12.309464 1.028664 31 58 5
-17.073870 27.738258 13.038445 87 99 95
-0.367864 14.085849 1.156561 97 109 86
-52.322067 46.812752 25.217678 48 60 63
-0.997931 12.630557 0.898212 15 31 0
-31.040638 55.768829 25.076878 163 175 170
-2.555251 13.290655 0.311893 58 80 33
-18.458588 32.566223 9.294572 2 2 2
-0.400251 13.006210 0.365887 60 77 46
-18.701487 15.140599 3.298820 8 19 6
-1.838831 12.546836 0.085677 26 49 7
-33.356426 33.862953 8.589348 100 118 113
-0.655272 13.338689 0.064491 3 10 0
8.218168 13.399017 -2.185155 15 15 10
-1.242551 12.660091 1.346433 10 20 0
-1.592994 12.619361 2.284479 176 212 138
-28.808060 28.220453 5.612316 6 8 8
-2.281778 12.712546 2.143774 150 180 106
-19.801641 17.332676 2.371853 86 90 76
-1.244992 12.206299 1.701052 118 151 62
-19.613865 27.947849 4.940054 16 22 22
-1.256478 12.211706 0.294617 27 64 17
-19.475578 16.500305 1.746606 37 42 37
-2.383891 13.351444 2.140725 140 176 90
-19.719015 16.805923 1.698870 83 96 90
-13.859499 21.851061 4.386586 143 171 164
-21.168497 17.136702 0.209744 9 4 1
-14.464808 24.449678 4.240649 36 36 35
-1.656963 12.268671 1.988388 118 126 117
-0.522038 12.614611 0.734368 46 81 28
-52.593689 46.484600 26.293001 233 250 220
-0.509179 12.545703 0.500016 70 105 57
-54.828255 46.734161 26.095449 205 240 241
-2.132383 12.779455 2.094305 108 130 73
-53.275089 47.208252 23.178459 48 123 104
-0.472758 12.160132 1.242103 71 81 40
-41.787296 52.890064 23.761915 163 181 176
-0.109898 12.927909 0.651407 94 102 95
-43.729053 50.213459 22.518120 177 190 189
-1.400186 11.951320 1.439527 159 200 132
-1.277839 12.377405 1.326939 89 105 86
-1.400186 11.951320 1.439527 159 200 132
-32.377602 29.088825 6.042387 144 179 188
8.577793 24.620935 3.194348 75 75 78
-2.866648 13.288991 1.120721 33 43 20
-2.243034 13.278916 2.034394 60 72 45
-18.593117 16.395805 1.926909 30 41 19
5.472970 31.225416 4.618431 109 111 103
-17.578297 25.805387 4.041408 20 27 22
-20.031591 37.389404 11.519300 144 150 152
-19.859863 17.181484 1.853561 50 58 56
-0.376943 14.508610 1.331050 104 113 91
-20.083611 17.557253 1.824582 54 56 51
2.284387 39.035233 10.778397 107 121 122
-53.100883 47.438759 26.826645 141 126 63
6.210518 31.510576 7.663956 209 222 214
-43.781094 51.464394 23.064041 169 188 183
4.701825 33.129330 7.889855 73 85 84
-18.837498 14.962231 3.601135 31 52 10
5.794350 31.042341 7.240738 79 53 51
-21.072498 36.622757 9.802340 178 187 180
-17.048800 30.114006 6.312328 150 160 159
-0.656257 12.790408 1.345723 64 81 62
-17.327614 30.824394 6.405000 47 49 64
-0.656257 12.790408 1.345723 64 81 62
5.624824 31.015175 7.130905 53 40 46
-22.988739 27.140171 5.779738 22 21 22
-1.006114 14.027506 3.219058 201 210 199
-22.807196 26.683876 5.402095 18 17 14
4.776939 30.549976 6.238666 10 13 32
-1.502887 11.773893 0.531147 32 57 16
-2.257781 12.380055 2.555826 188 216 158
-2.601585 13.687023 0.484809 73 78 64
-2.456258 12.683451 2.342670 178 208 160
5.536368 23.453543 2.307461 8 10 11
-0.933143 12.367495 2.374578 136 146 118
-16.932531 25.254120 3.846073 39 38 38
-16.982941 25.438862 3.735967 8 10 3
12.297332 69.483948 33.239567 129 118 95
-0.249453 12.714672 2.351904 132 138 108
-54.620594 46.622070 25.480911 38 34 27
-16.835604 24.792339 3.424162 135 140 138
-53.176487 46.872295 23.380356 187 215 218
-1.271175 12.260014 2.159608 141 171 66
-30.895264 56.477848 25.202156 171 185 180
-2.192003 12.505477 1.757576 147 173 138
7.759202 21.815775 3.151355 76 75 85
-0.474268 12.937542 1.575960 76 83 34
6.478240 22.554188 3.079259 54 64 69
-22.439079 26.114456 5.389843 91 111 109
-1.010570 12.439695 1.522127 119 142 91
-29.500708 29.324440 6.225143 70 82 99
-0.892067 13.204224 1.528648 76 83 45
-15.786698 27.083807 4.695280 94 106 98
-1.073371 12.310561 1.241846 77 101 61
-20.051176 17.632067 1.912402 54 53 47
-1.076492 12.305642 1.245556 77 101 61
-25.603703 24.453056 3.264284 26 18 12
7.679018 21.865921 2.484184 60 68 75
-25.371672 24.239983 3.210004 26 18 12
-1.591499 11.943486 0.995429 153 183 117
-26.544096 21.976114 4.609264 91 102 89
-0.909608 12.849535 0.953155 27 40 9
-18.355986 26.440922 4.225668 70 81 71
-1.152562 12.601957 0.428516 38 57 27
-54.403309 47.061245 23.180161 223 239 217
-1.515942 12.480737 0.404266 43 64 10
-0.222467 13.749887 0.450567 115 119 112
-23.813709 34.493225 9.171745 162 179 179
-0.803432 12.910971 0.256418 81 108 67
-24.595112 27.550051 5.708861 51 57 51
-0.232091 12.933106 0.105476 24 19 13
-32.667534 29.727493 7.114195 16 21 32
-0.685316 13.361023 -0.097465 2 5 2
-29.719349 28.558777 5.784356 14 20 19
-2.401187 13.239252 -0.134892 22 18 53
5.238394 22.875446 2.337578 94 90 82
-1.406337 12.558387 -0.152266 75 111 68
5.535644 21.662024 1.850553 15 20 19
8.450176 13.885604 -1.859588 7 26 27
-18.852829 28.247396 8.146917 11 17 15
8.469692 13.625849 -2.341141 79 80 70
-28.436646 24.121630 5.821460 6 9 8
3.789438 38.042240 11.218817 67 65 75
-24.815912 24.899128 3.783490 94 102 97
1.557127 40.329430 10.813659 61 64 70
2.652039 33.252136 6.970891 2 9 3
-16.978327 30.700821 6.974730 151 176 170
7.254550 24.116114 3.331475 15 19 17
-19.917484 27.725248 5.003406 148 166 163
-1.754325 12.321573 0.034883 56 76 47
-18.269518 27.007013 4.567506 62 74 66
-2.775689 12.784808 0.613492 83 95 59
-16.549404 26.004660 4.282272 153 175 164
-19.914862 38.944832 10.488341 54 66 60
-2.549199 13.478762 2.458480 212 233 198
-20.247499 38.885502 10.557369 57 61 59
-1.431304 11.945485 2.180190 180 216 138
-31.422285 29.651613 6.586879 1 13 12
-3.297712 13.416100 2.283637 140 147 140
-19.510920 27.487694 5.748752 94 101 97
-1.501657 12.470907 2.052426 142 176 100
-16.861790 29.565815 5.912439 147 168 164
-2.301463 13.276819 2.059893 174 206 140
-19.406204 37.176929 10.778230 101 106 103
-1.095559 12.578353 1.770879 70 94 23
5.737608 32.209743 4.044747 83 69 66
-20.104750 59.761768 26.739172 168 178 176
-0.085233 13.158855 0.891125 120 140 93
-32.114204 31.848860 7.308113 8 7 8
8.424405 13.752028 -2.008990 29 39 46
-0.747253 13.200327 0.064709 12 21 4
-18.062244 31.962156 8.719911 21 19 22
-1.030769 12.686907 -0.278570 3 1 3
-1.163656 12.674479 -0.286448 2 6 2
8.381584 13.680181 -2.084833 67 73 74
-18.912220 15.376001 3.102871 11 20 13
-19.612019 37.744972 11.563867 121 116 128
-0.481436 11.466413 1.098749 38 44 10
-19.648914 37.811024 11.590497 121 116 128
-1.241326 12.534971 1.368703 35 51 15
-18.893898 33.317699 10.092616 42 12 20
-19.419741 28.470165 5.289530 109 124 119
-19.506323 35.916706 10.759041 37 38 35
-0.403638 12.627660 2.107356 133 138 121
-0.893295 12.852657 1.895563 110 134 53
-1.594338 12.393553 2.515497 104 119 48
-0.779756 12.871451 1.544446 137 163 121
-1.574111 12.338066 2.491252 104 119 48
-1.911859 12.321087 1.304259 82 94 37
-1.331192 12.722286 2.457143 162 171 154
-26.452610 23.032742 5.712800 2 4 3
-16.319683 27.689245 4.919381 158 179 182
-0.920201 44.897274 11.888708 132 137 127
-1.323503 11.964362 2.276750 142 159 112
-31.581047 29.768904 6.461104 17 23 23
-0.534055 13.264509 0.166008 48 79 37
-19.922157 17.507584 1.028974 90 102 92
-20.113195 28.519520 5.367688 156 172 171
-53.359627 49.794441 22.138119 218 233 236
-1.480896 12.397655 2.534510 138 138 139
-25.037640 35.085606 9.288467 170 198 185
-1.252595 12.517012 2.468098 134 140 142
-31.534222 27.459684 5.290495 149 163 169
-2.136003 13.110082 2.277919 175 215 102
-1.060774 12.113247 2.021622 130 139 131
-1.136887 12.569139 1.677303 34 53 12
-19.866053 27.960175 4.802441 25 27 18
3.475438 28.410137 4.856007 8 5 5
-1.209029 13.571609 2.722055 134 143 136
-0.596071 13.091497 -0.877904 135 135 131
-1.740334 12.635114 1.566190 78 107 49
-54.577484 50.031490 25.624235 240 249 240
-2.502553 13.038805 1.965153 129 143 122
-1.255214 12.690941 0.020172 40 62 21
-16.047348 25.530081 5.443466 9 13 14
-19.883543 37.433800 10.956951 35 38 39
